ply
format ascii 1.0
element vertex 100
property float x
property float y
property float z
property float nx
property float ny
property float nz
end_header
-0.5668604096587397 0.15808534134787927 0.8085037419903819 -0.5668604096587395 0.15808534134787877 0.8085037419903823
0.6434627751322141 0.6238940972196384 -0.4435220541006299 0.6434627751322143 0.6238940972196381 -0.44352205410063006
0.5230738211891243 0.46570587185367235 0.7138009656112964 0.5230738211891244 0.4657058718536725 0.713800965611296
-0.03322931511960457 0.4952167555831222 0.868133732558762 -0.03322931511960462 0.4952167555831222 0.868133732558762
0.49538933315030514 0.3450711075420187 0.7971921596080964 0.49538933315030503 0.34507110754201864 0.7971921596080964
0.06956890348132343 0.504676437276389 0.8605009362728302 0.06956890348132369 0.5046764372763892 0.8605009362728301
-0.8195391804683867 0.536544052231843 -0.20118650971632915 -0.8195391804683869 0.5365440522318429 -0.20118650971632862
-0.49960445283602795 0.09269510313511053 -0.8612798665713628 -0.499604452836028 0.09269510313511038 -0.8612798665713627
0.05704415220073796 0.9223507990383947 -0.38211904979068234 0.057044152200737976 0.9223507990383947 -0.3821190497906824
0.883338925702276 0.06217837920810185 -0.4645925004756344 0.883338925702276 0.06217837920810178 -0.46459250047563433
0.4929498310553341 -0.8699334875090651 -0.014703447651239113 0.49294983105533347 -0.8699334875090656 -0.01470344765123808
-0.3268141011748911 -0.7773381954877808 -0.5375294160406932 -0.3268141011748913 -0.7773381954877808 -0.5375294160406933
-0.07866175181171377 0.6567113099081836 -0.7500283889564381 -0.07866175181171371 0.6567113099081836 -0.7500283889564381
-0.5416603935784263 -0.6907022563957884 -0.47909749638067517 -0.5416603935784259 -0.6907022563957883 -0.47909749638067545
0.040268369127245025 0.9592764360230337 -0.27958393683968785 0.04026836912724496 0.9592764360230336 -0.2795839368396881
0.9637081867954267 -0.24780835621472108 0.09928519171371257 0.963708186795427 -0.24780835621472044 0.09928519171371114
0.25130616820447993 -0.5720139746831998 0.7807978115936989 0.25130616820447954 -0.5720139746832 0.7807978115936989
-0.469042255947244 -0.48395790192207827 0.7387720293183142 -0.4690422559472439 -0.48395790192207827 0.7387720293183143
0.03293076900869037 -0.7358555298416116 0.6763373445655779 0.032930769008690366 -0.7358555298416116 0.6763373445655779
-0.7192707670091932 0.08545586667403786 -0.6894540293427807 -0.7192707670091932 0.08545586667403784 -0.6894540293427807
-0.04016970894376471 0.9666977929747218 0.25274843528927143 -0.04016970894376478 0.9666977929747218 0.2527484352892714
0.429431939811189 0.3787229458054328 0.8198519008884803 0.4294319398111896 0.3787229458054323 0.8198519008884803
0.17205739719675409 -0.953823478130273 -0.24620524900445784 0.17205739719675428 -0.953823478130273 -0.24620524900445795
-0.4788786219033201 0.8083482367555788 0.342415527711761 -0.47887862190332 0.8083482367555789 0.34241552771176104
0.16708136805615656 0.9340144696295688 -0.31575431425568556 0.16708136805615761 0.9340144696295684 -0.31575431425568695
-0.9313564191134102 0.0759550327833636 0.3560983762545456 -0.93135641911341 0.07595503278336359 0.3560983762545457
0.26876189950660884 0.9423987112697899 -0.1991273722285273 0.26876189950660867 0.94239871126979 -0.19912737222852728
0.15468923159030717 -0.47862152302360494 0.8642873823726486 0.15468923159030717 -0.47862152302360467 0.8642873823726489
-0.33834525639199925 0.6096506347878767 -0.7168323311484851 -0.3383452563919989 0.609650634787877 -0.7168323311484851
0.18106219749985128 0.9570494215343958 0.2264351681546026 0.18106219749985114 0.9570494215343959 0.22643516815460243
0.8408191931037468 0.04870414345627564 -0.539120571782004 0.8408191931037465 0.048704143456275516 -0.5391205717820041
0.36769051591528845 -0.8696287311780377 0.32946859397463785 0.36769051591528895 -0.8696287311780377 0.32946859397463785
0.49058696922953304 0.07314493977397217 -0.8683169026384567 0.4905869692295331 0.07314493977397202 -0.8683169026384566
0.8646793458390857 -0.02317835957878027 -0.5017891913209448 0.8646793458390857 -0.023178359578780255 -0.5017891913209448
0.04288233297872178 0.987694506499802 0.15040168665415457 0.04288233297872162 0.9876945064998021 0.15040168665415432
-0.6696377129105099 0.5536715570903324 0.4950082224742822 -0.6696377129105093 0.5536715570903328 0.49500822247428233
0.3805354669422547 0.06291409506655131 0.9226237451101057 0.38053546694225854 0.06291409506654858 0.9226237451101041
-0.4606521795927989 0.6640347610015856 0.5889460124815948 -0.46065217959279886 0.6640347610015856 0.5889460124815948
0.7978441653737208 -0.040011801840621135 -0.6015344906924106 0.7978441653737207 -0.040011801840620836 -0.6015344906924107
-0.7542286212996137 0.11819613620181654 0.6458861046650914 -0.7542286212996137 0.11819613620181664 0.6458861046650916
0.42370787048234926 -0.9041046252985073 0.05537568965853526 0.4237078704823492 -0.9041046252985073 0.05537568965853539
0.5967507699769112 0.5066418849534041 0.6222559914880895 0.5967507699769111 0.506641884953404 0.6222559914880894
0.07639448602153019 -0.05496404351937291 0.9955615683751089 0.07639448602153028 -0.05496404351937289 0.9955615683751089
0.3811197063559917 -0.43678465497896535 0.8148416622890785 0.3811197063559923 -0.43678465497896546 0.8148416622890782
0.40579612214472754 -0.7370020707556625 0.5405159155419635 0.40579612214472516 -0.7370020707556647 0.5405159155419622
0.10778869533450502 -0.9781211784938396 0.17793413764623073 0.10778869533450466 -0.9781211784938396 0.17793413764623078
0.4849282041584395 0.8409229228917047 0.24019424340925224 0.48492820415843957 0.8409229228917042 0.24019424340925288
0.08454593411963869 0.8856130424331129 -0.45666346919389467 0.08454593411963862 0.885613042433113 -0.45666346919389456
0.19694546910668986 -0.5341979192422716 0.8220979657410505 0.19694546910668986 -0.5341979192422716 0.8220979657410504
0.9110028076097458 0.4110636890631891 -0.03317420776630955 0.911002807609746 0.411063689063189 -0.033174207766309596
0.13660020647671156 0.5135077511446097 -0.8471423570480497 0.136600206476712 0.513507751144608 -0.8471423570480506
0.0722383874291751 -0.21525378755090308 0.9738826532630219 0.07223838742917517 -0.21525378755090327 0.9738826532630217
-0.5657726495331783 0.20918498277706057 -0.7975857019911831 -0.5657726495331785 0.2091849827770603 -0.7975857019911831
-0.4565581746421507 0.21975733816028487 0.8621260612533027 -0.4565581746421506 0.21975733816028487 0.8621260612533028
-0.7887724404653401 -0.6070607485523282 0.09651572270588223 -0.7887724404653406 -0.6070607485523274 0.09651572270588277
0.09797107323146519 0.9676694332999825 -0.23241673060854573 0.09797107323147586 0.9676694332999817 -0.2324167306085453
-0.1547134523558039 -0.5824390947431718 0.7980153185089263 -0.1547134523558038 -0.5824390947431718 0.7980153185089263
-0.8244074858596296 -0.2631259271178666 0.5011157987301617 -0.8244074858596291 -0.26312592711786786 0.5011157987301617
-0.8809171342317493 -0.10017191142962727 0.4625479334917158 -0.8809171342317494 -0.10017191142962723 0.46254793349171586
0.5931490244249682 -0.016171848104827302 -0.8049302492468418 0.5931490244249709 -0.016171848104823923 -0.8049302492468399
-0.7208692904139594 -0.6599888844707381 0.2115706466245861 -0.7208692904139591 -0.6599888844707382 0.21157064662458586
-0.7112073720379802 -0.2559931687364957 -0.6547148780340021 -0.7112073720379803 -0.25599316873649536 -0.654714878034002
-0.6330601657224667 0.5730173176575317 -0.5204670789204736 -0.6330601657224667 0.5730173176575318 -0.5204670789204735
-0.15270259078637632 0.882298281671737 -0.4452321427370546 -0.15270259078637627 0.882298281671737 -0.4452321427370546
-0.21055986311597183 -0.8300277151282786 0.5164479994767261 -0.2105598631159718 -0.8300277151282784 0.516447999476726
-0.33405154532057807 -0.6398773683625977 0.6920740701155405 -0.3340515453205764 -0.6398773683625979 0.6920740701155411
-0.23792275858403167 0.8709137083683157 0.43000241106755777 -0.23792275858403172 0.8709137083683157 0.4300024110675577
0.7162236912275866 -0.44304594362968197 0.5391974739903883 0.7162236912275864 -0.4430459436296821 0.5391974739903883
-0.861654160242585 0.24762348155681252 -0.4429838817816385 -0.8616541602425849 0.2476234815568126 -0.44298388178163844
0.22774855110802278 0.9420591915910923 -0.24628251461874826 0.22774855110802278 0.9420591915910923 -0.24628251461874826
-0.7639141719443894 0.0028934339970958078 0.645311371310178 -0.7639141719443893 0.0028934339970957327 0.645311371310178
0.9088773384477747 -0.41596506383549614 -0.030249782221046954 0.9088773384477747 -0.4159650638354962 -0.03024978222104696
-0.7985908292702991 -0.4450931216775819 -0.4051478747823825 -0.7985908292702991 -0.445093121677582 -0.4051478747823826
0.021795787303996235 0.4066566500281465 -0.9133210348194575 0.021795787303996162 0.4066566500281466 -0.9133210348194574
-0.06418495102777001 -0.34681813776130005 -0.935733654081837 -0.06418495102776989 -0.3468181377613 -0.9357336540818368
0.6691325258386277 0.2917050556796209 0.6834982248373197 0.669132525838627 0.29170505567962274 0.6834982248373198
-0.7137837663115921 0.6800220691798663 -0.16757899742620339 -0.7137837663115923 0.6800220691798663 -0.16757899742620333
-0.2779662487640312 -0.18780523595102733 0.9420530547147713 -0.27796624876403103 -0.18780523595102755 0.9420530547147712
0.1969334997629069 -0.7485066750211453 -0.633210039497103 0.19693349976290683 -0.7485066750211452 -0.6332100394971031
0.9522082338024546 0.3054450779868411 0.0016684760779294607 0.9522082338024546 0.3054450779868411 0.001668476077929512
0.9313015705621165 -0.355388229460851 0.0798535599032185 0.9313015705621164 -0.3553882294608509 0.07985355990321806
0.5826555127355904 0.6061981378718267 0.5413283394757343 0.5826555127355909 0.6061981378718716 0.5413283394756836
-0.6688360232970317 -0.6163049871950085 -0.41572411127907016 -0.6688360232970318 -0.6163049871950085 -0.4157241112790701
0.5626606446480071 0.3323115496051079 -0.7569557668472716 0.5626606446480095 0.33231154960510395 -0.7569557668472716
-0.9295576982337509 0.1711631787949025 0.32653583552069004 -0.9295576982337509 0.1711631787949025 0.32653583552068993
0.032887676230529496 0.8491236483405816 -0.5271692617944793 0.0328876762305293 0.8491236483405817 -0.5271692617944792
0.8601951907684525 -0.5081881401830745 -0.04253290439287316 0.8601951907684553 -0.5081881401830695 -0.04253290439287843
0.8494664195351271 -0.3736011290441592 -0.3725976361426637 0.8494664195351279 -0.37360112904415677 -0.3725976361426643
-0.851740672207813 0.15611598625447295 -0.5001655987198399 -0.8517406722078131 0.15611598625447298 -0.5001655987198398
0.7482386033532382 -0.04631717612461657 0.6618109334604837 0.7482386033532382 -0.04631717612461655 0.6618109334604836
0.26234233815215574 -0.1491041639644549 0.9533857802072155 0.26234233815215535 -0.1491041639644541 0.9533857802072156
0.5191549442359362 0.6185448980099137 0.589813829120077 0.5191549442359362 0.6185448980099135 0.5898138291200771
-0.13480988202373367 -0.9347738185926959 -0.3286703573223124 -0.13480988202373376 -0.9347738185926959 -0.32867035732231253
0.6039382267598367 0.7173993407700124 0.3472705056881965 0.6039382267598369 0.7173993407700124 0.34727050568819634
0.38328158392593065 0.8784066511358951 -0.2854767637890194 0.38328158392593065 0.8784066511358952 -0.28547676378901904
0.7619193980617842 -0.1603345932216974 0.6275122700582048 0.7619193980617833 -0.1603345932216972 0.6275122700582058
0.23970682538416066 -0.7279021435994162 0.6424166149840944 0.23970682538416083 -0.7279021435994164 0.6424166149840944
-0.6529901213783923 -0.5153769323687718 0.5549689351345594 -0.6529901213783929 -0.5153769323687724 0.5549689351345585
-0.4290236304361027 0.7959609388150349 0.42706546150223235 -0.4290236304361027 0.7959609388150349 0.4270654615022323
-0.5849439222469632 0.8089888679352838 0.0581172898811252 -0.5849439222469638 0.8089888679352832 0.05811728988112511
